ply
format ascii 1.0
element vertex 377
property float x
property float y
property float z
property uchar red
property uchar green
property uchar blue
element face 0
end_header
0.5  -1.44  1.475 155  95  231
0.15000000000000036  -1.32  0.8 56  159  125
0.30000000000000027  -1.5  0.8 99  63  125
0.30000000000000027  -1.5  0.55 99  63  86
0.40000000000000036  -1.5  0.6000000000000001 127  63  94
0.40000000000000036  -1.5  0.8500000000000001 127  63  133
0.050000000000000266  -1.2000000000000002  1.4500000000000002 28  223  227
0.15000000000000036  -1.32  1.35 56  159  211
0.15000000000000036  -1.32  1.6 56  159  251
0.4500000000000002  -1.2000000000000002  0.1 141  223  15
0.10000000000000009  -1.5  1.2000000000000002 42  63  188
0.0  -1.3800000000000001  1.0 14  127  156
0.20000000000000018  -1.5  0.6000000000000001 70  63  94
0.30000000000000027  -1.26  1.25 99  191  196
0.15000000000000036  -1.56  0.5 56  31  78
0.15000000000000036  -1.56  0.25 56  31  39
0.4500000000000002  -1.32  0.55 141  159  86
0.4500000000000002  -1.32  0.30000000000000004 141  159  47
0.15000000000000036  -1.56  1.05 56  31  164
0.4500000000000002  -1.32  0.8 141  159  125
0.20000000000000018  -1.26  0.75 70  191  117
0.30000000000000027  -1.62  1.1 99  0  172
0.20000000000000018  -1.26  1.3 70  191  204
0.3500000000000001  -1.44  1.3 113  95  204
0.3500000000000001  -1.44  1.05 113  95  164
0.20000000000000018  -1.62  0.8500000000000001 70  0  133
0.40000000000000036  -1.2000000000000002  0.47500000000000003 127  223  74
0.25  -1.32  0.55 84  159  86
0.3500000000000001  -1.32  0.8500000000000001 113  159  133
0.5  -1.3800000000000001  1.4000000000000001 155  127  219
0.40000000000000036  -1.3800000000000001  0.9 127  127  141
0.25  -1.32  1.1 84  159  172
0.25  -1.56  0.35000000000000003 84  31  54
0.20000000000000018  -1.3800000000000001  1.05 70  127  164
0.20000000000000018  -1.3800000000000001  1.55 70  127  243
0.3500000000000001  -1.56  1.05 113  31  164
0.40000000000000036  -1.32  0.8250000000000001 127  159  129
0.10000000000000009  -1.3800000000000001  1.55 42  127  243
0.10000000000000009  -1.3800000000000001  1.3 42  127  204
0.10000000000000009  -1.3800000000000001  1.05 42  127  164
0.050000000000000266  -1.44  0.65 28  95  102
0.40000000000000036  -1.26  0.0 127  191  0
0.40000000000000036  -1.26  0.75 127  191  117
0.050000000000000266  -1.44  1.2000000000000002 28  95  188
-0.04999999999999982  -1.32  0.9500000000000001 0  159  149
0.25  -1.44  0.45 84  95  70
0.3500000000000001  -1.2000000000000002  0.15000000000000002 113  223  23
0.10000000000000009  -1.5  0.7000000000000001 42  63  109
0.10000000000000009  -1.44  0.625 42  95  98
0.30000000000000027  -1.26  0.75 99  191  117
0.30000000000000027  -1.26  0.5 99  191  78
0.4500000000000002  -1.44  0.75 141  95  117
0.4500000000000002  -1.44  0.5 141  95  78
0.0  -1.32  0.925 14  159  145
0.10000000000000009  -1.26  1.4000000000000001 42  191  219
0.10000000000000009  -1.26  1.1500000000000001 42  191  180
0.25  -1.44  1.4000000000000001 84  95  219
0.20000000000000018  -1.26  0.8 70  191  125
0.15000000000000036  -1.56  0.45 56  31  70
0.15000000000000036  -1.56  0.2 56  31  31
0.30000000000000027  -1.5  1.2000000000000002 99  63  188
0.30000000000000027  -1.3800000000000001  1.05 99  127  164
0.050000000000000266  -1.32  1.0 28  159  156
0.050000000000000266  -1.32  1.5 28  159  235
0.20000000000000018  -1.5  1.25 70  63  196
0.050000000000000266  -1.32  1.25 28  159  196
0.3500000000000001  -1.44  0.45 113  95  70
0.40000000000000036  -1.26  0.1 127  191  15
0.20000000000000018  -1.3800000000000001  0.55 70  127  86
0.4500000000000002  -1.2000000000000002  0.05 141  223  7
0.40000000000000036  -1.3800000000000001  0.35000000000000003 127  127  54
0.20000000000000018  -1.62  1.0 70  0  156
0.25  -1.56  0.55 84  31  86
0.25  -1.56  0.30000000000000004 84  31  47
0.3500000000000001  -1.32  1.25 113  159  196
0.4500000000000002  -1.2000000000000002  0.15000000000000002 141  223  23
0.10000000000000009  -1.2000000000000002  1.5750000000000002 42  223  247
0.40000000000000036  -1.26  0.45 127  191  70
0.5  -1.44  1.375 155  95  215
0.25  -1.44  0.4 84  95  62
0.050000000000000266  -1.44  1.05 28  95  164
0.40000000000000036  -1.44  1.425 127  95  223
0.30000000000000027  -1.26  0.45 99  191  70
0.15000000000000036  -1.32  0.7000000000000001 56  159  109
0.30000000000000027  -1.5  0.7000000000000001 99  63  109
0.4500000000000002  -1.44  0.45 141  95  70
0.20000000000000018  -1.2000000000000002  1.5750000000000002 70  223  247
0.10000000000000009  -1.5  1.1 42  63  172
0.40000000000000036  -1.1400000000000001  0.05 127  255  7
0.30000000000000027  -1.3800000000000001  0.45 99  127  70
0.30000000000000027  -1.62  1.0 99  0  156
0.30000000000000027  -1.62  0.9500000000000001 99  0  149
0.15000000000000036  -1.56  0.9 56  31  141
0.30000000000000027  -1.26  1.4000000000000001 99  191  219
0.15000000000000036  -1.56  0.4 56  31  62
0.15000000000000036  -1.56  0.15000000000000002 56  31  23
0.4500000000000002  -1.32  0.7000000000000001 141  159  109
0.3500000000000001  -1.44  0.4 113  95  62
0.20000000000000018  -1.62  0.5 70  0  78
0.15000000000000036  -1.56  1.2000000000000002 56  31  188
0.20000000000000018  -1.62  0.25 70  0  39
0.30000000000000027  -1.56  1.175 99  31  184
0.5  -1.5  1.4500000000000002 155  63  227
0.20000000000000018  -1.26  1.4500000000000002 70  191  227
0.20000000000000018  -1.26  1.2000000000000002 70  191  188
0.10000000000000009  -1.1400000000000001  1.5 42  255  235
0.3500000000000001  -1.44  1.2000000000000002 113  95  188
0.25  -1.32  1.5 84  159  235
0.25  -1.32  0.9500000000000001 84  159  149
0.40000000000000036  -1.3800000000000001  0.30000000000000004 127  127  47
0.8000000000000003  -1.56  1.5250000000000001 240  31  239
0.20000000000000018  -1.56  1.225 70  31  192
0.15000000000000036  -1.44  0.75 56  95  117
0.15000000000000036  -1.44  0.5 56  95  78
0.15000000000000036  -1.44  1.3 56  95  204
0.8500000000000001  -1.56  1.55 255  31  243
0.10000000000000009  -1.3800000000000001  1.4500000000000002 42  127  227
0.25  -1.56  1.2000000000000002 84  31  188
0.75  -1.56  1.55 226  31  243
0.050000000000000266  -1.44  1.1 28  95  172
0.40000000000000036  -1.26  0.65 127  191  102
0.40000000000000036  -1.26  0.4 127  191  62
0.40000000000000036  -1.26  0.15000000000000002 127  191  23
0.30000000000000027  -1.32  0.9750000000000001 99  159  153
0.20000000000000018  -1.44  1.3250000000000002 70  95  207
0.20000000000000018  -1.1400000000000001  1.55 70  255  243
0.30000000000000027  -1.26  0.9 99  191  141
0.30000000000000027  -1.26  0.65 99  191  102
0.4500000000000002  -1.44  0.9 141  95  141
0.4500000000000002  -1.44  0.65 141  95  102
0.4500000000000002  -1.44  0.4 141  95  62
0.10000000000000009  -1.26  1.3 42  191  204
0.30000000000000027  -1.26  1.2000000000000002 99  191  188
0.6000000000000001  -1.44  1.425 184  95  223
0.20000000000000018  -1.26  0.7000000000000001 70  191  109
0.30000000000000027  -1.5  1.35 99  63  211
0.40000000000000036  -1.5  1.4000000000000001 127  63  219
0.15000000000000036  -1.56  0.35000000000000003 56  31  54
0.15000000000000036  -1.2000000000000002  1.4500000000000002 56  223  227
0.20000000000000018  -1.62  0.45 70  0  70
0.20000000000000018  -1.62  0.2 70  0  31
0.050000000000000266  -1.32  1.4000000000000001 28  159  219
0.050000000000000266  -1.32  1.1500000000000001 28  159  180
0.20000000000000018  -1.3800000000000001  0.9500000000000001 70  127  149
0.40000000000000036  -1.2000000000000002  0.5750000000000001 127  223  90
0.3500000000000001  -1.56  0.9500000000000001 113  31  149
0.40000000000000036  -1.1400000000000001  0.5 127  255  78
0.40000000000000036  -1.1400000000000001  0.0 127  255  0
0.15000000000000036  -1.44  0.8 56  95  125
0.15000000000000036  -1.44  0.55 56  95  86
0.10000000000000009  -1.32  1.375 42  159  215
0.10000000000000009  -1.32  1.625 42  159  255
0.10000000000000009  -1.3800000000000001  0.7000000000000001 42  127  109
0.20000000000000018  -1.62  1.1500000000000001 70  0  180
0.4500000000000002  -1.2000000000000002  0.55 141  223  86
0.15000000000000036  -1.44  0.45 56  95  70
0.3500000000000001  -1.32  1.4000000000000001 113  159  219
0.40000000000000036  -1.26  0.35000000000000003 127  191  54
0.050000000000000266  -1.2000000000000002  1.5 28  223  235
0.40000000000000036  -1.1400000000000001  0.1 127  255  15
0.15000000000000036  -1.32  0.8500000000000001 56  159  133
0.30000000000000027  -1.5  0.6000000000000001 99  63  94
0.30000000000000027  -1.5  0.8500000000000001 99  63  133
0.20000000000000018  -1.2000000000000002  1.475 70  223  231
-0.04999999999999982  -1.32  1.0 0  159  156
0.10000000000000009  -1.5  1.25 42  63  196
0.30000000000000027  -1.26  1.3 99  191  204
0.15000000000000036  -1.56  0.55 56  31  86
0.15000000000000036  -1.56  0.30000000000000004 56  31  47
0.4500000000000002  -1.32  0.6000000000000001 141  159  94
0.15000000000000036  -1.56  1.1 56  31  172
0.30000000000000027  -1.62  1.1500000000000001 99  0  180
0.20000000000000018  -1.62  0.9 70  0  141
0.20000000000000018  -1.62  0.4 70  0  62
0.20000000000000018  -1.26  1.35 70  191  211
0.20000000000000018  -1.26  1.1 70  191  172
0.3500000000000001  -1.44  1.35 113  95  211
0.20000000000000018  -1.62  0.15000000000000002 70  0  23
0.3500000000000001  -1.44  1.1 113  95  172
0.3500000000000001  -1.32  0.4 113  159  62
0.3500000000000001  -1.32  0.9 113  159  141
0.25  -1.32  0.6000000000000001 84  159  94
0.20000000000000018  -1.62  1.2000000000000002 70  0  188
0.5  -1.3800000000000001  1.4500000000000002 155  127  227
0.20000000000000018  -1.56  0.5750000000000001 70  31  90
0.20000000000000018  -1.56  0.8250000000000001 70  31  129
0.40000000000000036  -1.3800000000000001  0.9500000000000001 127  127  149
0.25  -1.32  1.1500000000000001 84  159  180
0.30000000000000027  -1.44  0.47500000000000003 99  95  74
0.20000000000000018  -1.3800000000000001  1.35 70  127  211
0.3500000000000001  -1.56  1.1 113  31  172
0.15000000000000036  -1.44  0.9 56  95  141
0.15000000000000036  -1.44  0.4 56  95  62
0.10000000000000009  -1.3800000000000001  1.6 42  127  251
0.30000000000000027  -1.44  1.425 99  95  223
0.050000000000000266  -1.44  0.7000000000000001 28  95  109
0.40000000000000036  -1.26  0.30000000000000004 127  191  47
0.40000000000000036  -1.26  0.8 127  191  125
0.6000000000000001  -1.3800000000000001  1.4500000000000002 184  127  227
0.30000000000000027  -1.26  0.8 99  191  125
0.30000000000000027  -1.26  0.55 99  191  86
0.4500000000000002  -1.44  0.8 141  95  125
0.4500000000000002  -1.44  0.55 141  95  86
0.25  -1.2000000000000002  1.5 84  223  235
0.40000000000000036  -1.5  0.75 127  63  117
0.40000000000000036  -1.5  0.5 127  63  78
0.30000000000000027  -1.5  1.25 99  63  196
0.10000000000000009  -1.26  1.2000000000000002 42  191  188
0.0  -1.32  1.0250000000000001 14  159  160
0.20000000000000018  -1.26  0.8500000000000001 70  191  133
0.20000000000000018  -1.5  0.25 70  63  39
0.20000000000000018  -1.5  0.75 70  63  117
0.30000000000000027  -1.3800000000000001  1.1 99  127  172
0.050000000000000266  -1.32  1.55 28  159  243
0.050000000000000266  -1.32  1.3 28  159  204
0.20000000000000018  -1.5  1.3 70  63  204
0.20000000000000018  -1.62  0.35000000000000003 70  0  54
0.3500000000000001  -1.32  0.35000000000000003 113  159  54
0.20000000000000018  -1.3800000000000001  0.6000000000000001 70  127  94
0.20000000000000018  -1.3800000000000001  1.4000000000000001 70  127  219
0.15000000000000036  -1.44  0.9500000000000001 56  95  149
0.40000000000000036  -1.1400000000000001  0.15000000000000002 127  255  23
0.20000000000000018  -1.62  1.05 70  0  164
0.25  -1.56  0.8500000000000001 84  31  133
0.3500000000000001  -1.32  1.3 113  159  204
0.15000000000000036  -1.32  0.75 56  159  117
0.30000000000000027  -1.5  0.75 99  63  117
0.30000000000000027  -1.5  0.5 99  63  78
0.40000000000000036  -1.5  0.8 127  63  125
0.40000000000000036  -1.5  0.55 127  63  86
0.0  -1.26  0.9500000000000001 14  191  149
0.40000000000000036  -1.5  0.45 127  63  70
0.10000000000000009  -1.5  1.1500000000000001 42  63  180
0.20000000000000018  -1.32  1.075 70  159  168
0.4500000000000002  -1.32  0.75 141  159  117
0.15000000000000036  -1.56  1.0 56  31  156
0.4500000000000002  -1.32  0.5 141  159  78
0.15000000000000036  -1.56  0.9500000000000001 56  31  149
0.30000000000000027  -1.62  1.05 99  0  164
0.20000000000000018  -1.5  0.2 70  63  31
0.4500000000000002  -1.44  1.4500000000000002 141  95  227
0.20000000000000018  -1.32  1.5750000000000002 70  159  247
0.20000000000000018  -1.26  1.25 70  191  196
0.3500000000000001  -1.44  1.25 113  95  196
0.3500000000000001  -1.44  1.0 113  95  156
0.20000000000000018  -1.62  0.55 70  0  86
0.20000000000000018  -1.62  0.30000000000000004 70  0  47
0.25  -1.32  0.5 84  159  78
0.3500000000000001  -1.32  0.30000000000000004 113  159  47
0.10000000000000009  -1.1400000000000001  1.55 42  255  243
0.25  -1.32  1.55 84  159  243
0.40000000000000036  -1.3800000000000001  0.8500000000000001 127  127  133
0.8000000000000003  -1.56  1.5750000000000002 240  31  247
0.20000000000000018  -1.3800000000000001  1.0 70  127  156
0.20000000000000018  -1.3800000000000001  1.5 70  127  235
0.3500000000000001  -1.56  1.0 113  31  156
0.40000000000000036  -1.3800000000000001  1.4000000000000001 127  127  219
0.40000000000000036  -1.32  0.275 127  159  43
0.10000000000000009  -1.3800000000000001  1.5 42  127  235
0.40000000000000036  -1.44  0.9750000000000001 127  95  153
0.6500000000000004  -1.44  1.4500000000000002 198  95  227
0.050000000000000266  -1.44  1.1500000000000001 28  95  180
0.8000000000000003  -1.5  1.55 240  63  243
0.10000000000000009  -1.5  0.65 42  63  102
0.40000000000000036  -1.26  0.7000000000000001 127  191  109
0.0  -1.3800000000000001  0.9500000000000001 14  127  149
0.30000000000000027  -1.26  0.9500000000000001 99  191  149
0.30000000000000027  -1.26  0.7000000000000001 99  191  109
0.4500000000000002  -1.44  0.7000000000000001 141  95  109
0.4500000000000002  -1.44  0.9500000000000001 141  95  149
0.10000000000000009  -1.26  1.1 42  191  172
0.10000000000000009  -1.26  1.6 42  191  251
0.25  -1.44  1.35 84  95  211
0.40000000000000036  -1.5  0.9 127  63  141
0.40000000000000036  -1.5  0.65 127  63  102
0.40000000000000036  -1.5  0.4 127  63  62
0.6000000000000001  -1.44  1.475 184  95  231
0.30000000000000027  -1.5  1.4000000000000001 99  63  219
0.30000000000000027  -1.3800000000000001  1.0 99  127  156
0.4500000000000002  -1.32  0.45 141  159  70
0.20000000000000018  -1.5  0.15000000000000002 70  63  23
0.20000000000000018  -1.5  0.65 70  63  102
0.20000000000000018  -1.3800000000000001  0.5 70  127  78
0.050000000000000266  -1.32  1.2000000000000002 28  159  188
0.050000000000000266  -1.32  1.4500000000000002 28  159  227
0.25  -1.32  0.45 84  159  70
0.15000000000000036  -1.44  0.8500000000000001 56  95  133
0.40000000000000036  -1.1400000000000001  0.55 127  255  86
0.25  -1.56  0.5 84  31  78
0.25  -1.56  0.25 84  31  39
0.15000000000000036  -1.44  0.6000000000000001 56  95  94
0.3500000000000001  -1.2000000000000002  0.05 113  223  7
0.8000000000000003  -1.62  1.55 240  0  243
0.3500000000000001  -1.32  1.2000000000000002 113  159  188
0.20000000000000018  -1.44  0.375 70  95  58
0.050000000000000266  -1.2000000000000002  1.55 28  223  243
0.050000000000000266  -1.44  1.25 28  95  196
0.40000000000000036  -1.44  1.375 127  95  215
0.15000000000000036  -1.32  0.9 56  159  141
0.30000000000000027  -1.5  0.65 99  63  102
0.40000000000000036  -1.5  0.7000000000000001 127  63  109
0.40000000000000036  -1.5  0.9500000000000001 127  63  149
0.10000000000000009  -1.5  1.05 42  63  164
0.30000000000000027  -1.32  1.425 99  159  223
0.30000000000000027  -1.32  1.175 99  159  184
0.050000000000000266  -1.32  0.9500000000000001 28  159  149
0.20000000000000018  -1.5  0.7000000000000001 70  63  109
0.20000000000000018  -1.32  0.925 70  159  145
0.30000000000000027  -1.62  0.9 99  0  141
0.20000000000000018  -1.32  0.675 70  159  105
0.30000000000000027  -1.26  1.35 99  191  211
0.4500000000000002  -1.32  0.65 141  159  102
0.4500000000000002  -1.32  0.4 141  159  62
0.15000000000000036  -1.56  0.8500000000000001 56  31  133
0.20000000000000018  -1.5  0.35000000000000003 70  63  54
0.15000000000000036  -1.56  1.1500000000000001 56  31  180
0.5  -1.5  1.4000000000000001 155  63  219
0.20000000000000018  -1.3800000000000001  0.45 70  127  70
0.20000000000000018  -1.62  0.9500000000000001 70  0  149
0.6000000000000001  -1.5  1.4500000000000002 184  63  227
0.20000000000000018  -1.26  1.4000000000000001 70  191  219
0.20000000000000018  -1.26  1.1500000000000001 70  191  180
0.3500000000000001  -1.44  1.1500000000000001 113  95  180
0.25  -1.32  0.65 84  159  102
0.3500000000000001  -1.32  0.9500000000000001 113  159  149
0.20000000000000018  -1.56  0.125 70  31  19
0.10000000000000009  -1.1400000000000001  1.4500000000000002 42  255  227
0.25  -1.56  0.45 84  31  70
0.25  -1.32  1.4500000000000002 84  159  227
0.25  -1.56  0.2 84  31  31
0.3500000000000001  -1.56  1.1500000000000001 113  31  180
0.15000000000000036  -1.44  1.0 56  95  156
0.10000000000000009  -1.3800000000000001  1.4000000000000001 42  127  219
0.40000000000000036  -1.44  0.375 127  95  58
0.40000000000000036  -1.2000000000000002  0.17500000000000002 127  223  27
0.3500000000000001  -1.2000000000000002  0.0 113  223  0
0.40000000000000036  -1.26  0.6000000000000001 127  191  94
0.30000000000000027  -1.32  0.42500000000000004 99  159  66
0.3500000000000001  -1.2000000000000002  0.5 113  223  78
0.20000000000000018  -1.1400000000000001  1.5 70  255  235
0.5500000000000003  -1.44  1.4000000000000001 170  95  219
0.10000000000000009  -1.44  0.7250000000000001 42  95  113
0.30000000000000027  -1.26  0.6000000000000001 99  191  94
0.30000000000000027  -1.26  0.8500000000000001 99  191  133
0.4500000000000002  -1.44  0.6000000000000001 141  95  94
0.4500000000000002  -1.44  0.8500000000000001 141  95  133
0.10000000000000009  -1.26  1.25 42  191  196
0.10000000000000009  -1.44  1.0250000000000001 42  95  160
0.25  -1.2000000000000002  1.55 84  223  243
0.10000000000000009  -1.44  1.2750000000000001 42  95  200
0.20000000000000018  -1.26  0.9 70  191  141
0.30000000000000027  -1.56  0.875 99  31  137
0.30000000000000027  -1.5  1.3 99  63  204
0.0  -1.26  1.0 14  191  156
0.4500000000000002  -1.32  0.35000000000000003 141  159  54
0.20000000000000018  -1.5  0.30000000000000004 70  63  47
0.20000000000000018  -1.5  0.8 70  63  125
0.30000000000000027  -1.3800000000000001  1.1500000000000001 99  127  180
0.050000000000000266  -1.32  1.1 28  159  172
0.050000000000000266  -1.32  1.6 28  159  251
0.20000000000000018  -1.3800000000000001  0.65 70  127  102
0.20000000000000018  -1.3800000000000001  0.4 70  127  62
0.3500000000000001  -1.56  0.9 113  31  141
0.3500000000000001  -1.2000000000000002  0.1 113  223  15
0.20000000000000018  -1.3800000000000001  1.4500000000000002 70  127  227
0.10000000000000009  -1.32  1.075 42  159  168
0.10000000000000009  -1.3800000000000001  0.65 42  127  102
0.40000000000000036  -1.26  0.05 127  191  7
0.25  -1.56  0.4 84  31  62
0.25  -1.56  0.15000000000000002 84  31  23
0.20000000000000018  -1.62  1.1 70  0  172
0.4500000000000002  -1.2000000000000002  0.0 141  223  0
0.4500000000000002  -1.2000000000000002  0.5 141  223  78
0.10000000000000009  -1.32  1.3250000000000002 42  159  207
0.3500000000000001  -1.32  1.35 113  159  211
0.10000000000000009  -1.2000000000000002  1.425 42  223  223
0.3500000000000001  -1.2000000000000002  0.55 113  223  86
